# 3D point list with one line of data per point:
#   POINT3D_ID, X, Y, Z, R, G, B, ERROR, TRACK[] as (IMAGE_ID, POINT2D_IDX)
# Number of points: 359, mean track length: 5.4194640816153745
23720 -0.82692292560135172 2.1740753373980293 4.267874510300337 78 75 60 0.2565401082594595 10 455 15 2354 16 1886 14 2144 17 2920
23721 -0.92647055961499603 2.1683699139311448 4.2699848648551608 54 48 34 0.45189689050877424 14 2142 15 2356 17 3650 18 3231 23 2239
23722 -1.0581869229988716 2.1104633658521643 4.3303184820279501 50 47 32 0.39862177472927035 14 2146 15 2359 20 3148
23723 -0.9966129575617283 2.0894332288737338 4.3861386333089563 83 80 65 0.35515030618010485 10 402 15 2361 16 1892 17 1827 18 2727 19 1045 20 1343 23 1172 22 673
23724 -1.3109356141768194 1.9994133520187294 4.4586268062373344 80 76 64 0.36837272661608683 14 839 15 2368 16 1899 17 2944 18 2737 19 1062 20 1380 23 1313 22 1437
23725 0.30971769896659612 2.6865540569157167 3.6748298324864335 76 72 61 0.22209043310549703 12 2942 15 2415 17 1217
23726 0.1484400722050998 2.5953929539302516 3.7832772570280038 69 65 53 0.4987807387863234 14 2198 15 2421 17 2715
23727 -0.025123391190964729 2.4805653264089411 3.9355578611392934 72 68 59 0.33543091434996786 14 2288 15 2432 16 2403 18 2492
23728 -0.013880290271476733 2.4509801131466808 3.9796648356493178 49 46 32 0.43207695741035512 14 2291 15 2436 16 2458 17 2862 18 2593 20 742
23729 -0.178453667040017 2.394536588784415 4.0351438268711357 48 45 33 0.34888204595679767 10 595 15 2443 16 1960 17 2870 18 2596
23730 -0.16693919798691106 2.3849307432485554 4.0411810968451665 72 68 57 0.40103007680908631 14 2298 15 2445 16 1961 18 1372 17 1493
23731 -0.45712420921263858 2.2865236278530432 4.1642959423579153 83 77 65 0.2533559985406641 14 2217 15 2454 16 1974 17 2891 19 871 20 926
23732 -0.50825140414092984 2.2645817315574672 4.1850789993798569 53 49 37 0.28962164400641449 14 2221 15 2456 17 3632 20 3033 23 2171
23734 -0.72225399235938248 2.1854454553327414 4.2704648165479435 84 80 68 0.12519442870775901 12 2575 15 2464 16 2416 17 3705
23735 -0.8417597598305907 2.1299887396745207 4.3297373766123695 86 83 68 0.51964212837029822 13 1686 14 1159 15 2469 16 2478 17 3053 18 2720 19 1032 20 1130 23 2271 22 642
23736 -0.78306749661362918 2.1433947763124643 4.3237627570854391 48 44 32 0.34108917184001541 13 1738 15 2471 16 1989 17 1812 18 2714 19 2100 20 1129 23 1066
23737 -0.83267291886606509 2.0645042991429756 4.4423461619153919 84 82 69 0.24530291909890439 14 1167 15 2475 16 2067 20 1334 22 1380
23738 -1.0493375380933185 1.9728195512746545 4.5476893563179743 50 47 32 0.24636285108076925 12 2584 15 2482 17 3766 23 2397
23739 -1.176260114459303 1.9653713696399131 4.535465346916892 46 42 30 0.27166229063554759 12 724 15 2483 17 3717 18 2807 19 2214 16 2013 20 3389 23 3006 22 1971
23740 -1.1973584928847887 1.9599595820765994 4.5432180716365025 85 81 69 0.22292572209027398 14 2149 15 2485 20 4372 23 3012 22 1488
23741 0.38146399938753506 2.604977913379416 3.757735790929039 51 47 36 0.20731997817349554 14 2271 15 2527 16 1929
23742 0.15136112365563989 2.4981889885632325 3.9237569508465033 51 45 33 0.3769293343811011 12 1403 15 2534 16 1130
23743 0.04213622047250011 2.4423696310724479 3.9869381884391415 50 46 34 0.39160711134013582 12 1409 15 2537 16 1951 18 1340 20 750
23744 0.017009799556387116 2.4556639210361411 3.9745447089616444 45 41 29 0.380525790899783 12 1407 15 2543 17 2861 16 1946 18 1341 14 1292
23745 0.027361283032844973 2.4277878029945317 4.0190060686083386 76 72 60 0.3468374810386553 14 2824 15 2544 16 2463 18 2594
23746 -0.025940981743740755 2.3843350619256949 4.0803851141023948 47 43 31 0.52332648443703911 14 1474 15 2551 16 2043 18 1362
23747 -0.11748706495173807 2.3773190959492805 4.0804329396179471 46 42 31 0.16883069424393643 14 2301 15 2555 17 1733 18 1379
23748 -0.3163434233216969 2.2956489315218156 4.1722446375412314 50 46 35 0.2920166832192555 13 1030 15 2562 17 1767 18 1582
23749 -0.33160521101851131 2.2465342426255805 4.2388653591190977 82 83 70 0.34613043206791361 12 2818 15 2569 16 2053 17 3142 18 2701 19 869 20 1077 11 428
23750 -0.33183375972028833 2.2466459894011233 4.2385640778755533 82 83 70 0.19776156457234373 12 2819 14 1332 15 2570 17 3143
23751 -0.52789368824353222 2.2049036795603079 4.2759514782594001 58 56 44 0.39096339723464935 12 1052 15 2575 16 1158 18 1603 23 926
23752 -0.52789368824353222 2.2049036795603079 4.2759514782594001 58 56 44 0.39096339723464935 12 1053 15 2576 16 1157 18 1602 23 925
23753 -0.5390989343833259 2.1977220611573354 4.2867163659604346 89 85 73 0.34375355480037961 13 1036 15 2578 17 3040 14 1336 18 1612 22 620
23754 -0.56230111980679964 2.1705219606244563 4.3321868841459112 56 52 40 0.45134770866165336 12 1055 15 2579 17 3749 18 3252 20 1108 14 1343
23755 -0.45032567627049469 2.1979350472142474 4.3089083483783499 85 81 69 0.37905394589242869 14 2312 15 2580 18 2706 20 3116 23 2214 22 1328 16 2765
23756 -0.47228927343589244 2.1916893170550682 4.3110017723434204 82 78 66 0.39070205139694619 14 2314 15 2582 17 3150 20 3118 23 923
23757 -0.48675032754656161 2.1862445605514722 4.3205331952431907 50 46 34 0.32859276408360782 14 2316 15 2583 16 2058 17 1975 18 1599 20 1093 23 934 22 617
23758 -0.98034090787974804 1.9909980027279655 4.5336090807895006 52 49 34 0.27780425066255848 14 1175 15 2595 17 3767 19 2207 20 3372
23759 -1.0485253691052612 1.8887610886259696 4.6775551751784876 78 75 60 0.17908695467744304 12 2591 15 2600 19 2863
23761 0.26486465027211342 2.4678699180797934 3.9831320777144601 53 49 37 0.32541020418462069 14 1457 15 2646 16 2032
23762 0.23139722078691688 2.4553847226216132 3.9968664119111579 55 51 39 0.43823162189748244 12 3107 15 2648 16 2034 19 711
23763 0.28727806752299873 2.4516351531770848 4.0154675985203454 85 81 69 0.35622755752545371 12 3281 14 2468 15 2650
23764 0.08465892289093413 2.4180661157743537 4.0512538691495452 44 42 29 0.25991983409506131 12 2962 15 2652 16 2041 18 3216
23765 0.11680450450162183 2.3830414657247947 4.0964463157194668 77 73 61 0.28271035781699699 12 3112 15 2656 19 1990 20 3004
23766 -0.092509223939942029 2.2838695259752577 4.2212783703065142 47 43 32 0.19035255020518441 12 1441 14 1485 15 2662
23767 -0.43332249841051068 2.1606134763386411 4.3637747841192676 53 49 37 0.30480192741329609 12 2830 15 2668 19 1021 20 3201
23768 -0.43053205011494639 2.1465841354192179 4.3830242298749829 58 55 40 0.27375064944577937 12 1258 15 2669 18 3281
23769 -0.47871573260574313 2.1444464223940205 4.3796369052974811 85 81 69 0.16309932916217512 14 1504 15 2671 18 1778 19 1025 20 1302 23 931 22 616
23771 -0.51319775388581956 2.1100605704062616 4.4381155599336308 85 82 67 0.85210922212085638 14 2406 15 2677 22 658 23 1033
23772 -0.50264791847962498 2.0976244206705559 4.4423072263293131 54 51 36 0.5056804408087554 12 1264 15 2679 18 1886 20 1309 22 656
23773 -0.93399556127109884 1.9321589176041434 4.6323479593410424 50 47 32 0.49866053715085962 14 2328 15 2687 19 2313 20 3554 23 2482
23774 -0.93402324778364487 1.9320580497873681 4.6321483816199889 50 47 32 0.57840078281048402 14 2329 15 2688 20 3553 23 2483
23775 -0.86205894414730333 1.9455507921650452 4.6227648863370661 51 48 32 0.43548418182317777 12 1074 15 2689 19 2311 20 1837 23 2380 22 766
23776 -3.0384979346216783 2.660474192949958 -3.0317186530667488 198 191 165 0.69569263070287268 14 2501 15 2700 16 2092 17 3249 18 1964 19 1523 20 2530 22 979 21 1018 11 809 25 410
23777 -6.3789931897148326 2.9793490446264719 -0.44272499843750973 37 37 32 0.51034044750896124 14 2507 15 2714 16 2107 17 3278
23778 -0.25724938601726854 1.5291089916787188 0.72324207384594918 176 178 163 0.46908928781181025 14 2539 15 2751 16 2578 17 3848 18 3378
23779 -0.51593223000776489 1.5709618393383786 1.0014600189734246 147 108 119 0.48768170626911023 12 3655 14 2968 15 2769 16 2609 17 3335 18 2973 19 2532 11 928
23780 -0.55052552273976108 1.5571922171111534 1.0161253932139058 142 104 122 0.32311290920447389 14 2584 15 2770 18 2974 19 1612 20 2612
23781 -1.5002162422106011 0.77370204087463634 1.7108563151487752 255 247 238 0.1979054538267358 14 2580 15 2778 16 2193 17 3379 18 3030
23782 -0.27960036400872779 1.7353546491064036 0.85861807555890768 183 166 95 0.41757677431341 14 1803 15 2785 16 2604 17 3865 18 3391 20 4061 23 2796 22 1773 21 1684 27 813 26 775 25 659
23783 -0.52546360088176081 1.6246407468347372 1.0427371648303041 175 148 165 0.42977088617489045 12 4264 15 2788 11 671 14 1811
23784 -0.74732995828975801 1.2753599905793263 1.4182509166085437 165 197 255 0.6621516089673356 9 1047 20 2648
23785 -0.8388687178461629 1.2708708724568483 1.4189403207740638 175 208 255 0.52486783153800598 14 2593 15 2803 17 3363 20 2653 21 1177
23786 -0.8411095241825316 1.2860808380533217 1.4111407647656444 175 208 255 1.1691390448059564 13 2094 14 2594 15 2804 17 3364 20 2654 21 1178
23787 -1.3905818733783766 0.83191030386654774 1.6525759448576711 94 90 106 0.46511181238476024 14 2575 15 2809 16 2185
23788 -1.3851059812239983 0.80921146732463967 1.6816931139303921 249 241 248 0.067552615671284136 14 2576 15 2810 16 2189
23790 -0.93810758229756963 1.0509576724800738 1.9863745550431868 68 66 67 0.24248136337989681 14 2631 15 2874 11 687
23792 -0.88724799747705352 2.4334826438413204 3.8431861933052121 50 46 35 0.40564111958019466 14 1935 15 2884 16 1597 17 3496 18 3165 19 1870 20 697
23793 -0.042328395830463793 2.7169295320056763 3.5652710570468984 49 45 34 0.16394956856797341 10 1276 15 2899 22 478
23794 -0.57711239656635949 2.5246512735963638 3.7761911332585374 67 64 57 0.55172393050200619 12 2440 14 2650 15 2903 18 3161 19 2679 20 2934
23795 -0.73215449488164752 2.4278075527278187 3.8824132780343592 50 46 34 0.3369196212591527 14 1982 15 2905 17 3493
23796 -1.0211747231462465 2.3273726105019503 3.9991425932982323 77 73 61 0.28720255962703722 12 2381 15 2906 17 3501 18 3183 19 2694 20 2995 23 2941 22 1927 21 1848
23797 -0.90802413922005676 2.2987785720804492 4.066249016479019 54 51 36 0.27531271247771821 13 1617 15 2910 17 3531 18 3190 19 2696 23 2195
23799 -0.629639854832723 2.3847821524134361 3.9856140373677147 73 69 58 0.52168126930779679 12 2449 15 2945 20 4260 23 2926 11 749
23800 -1.2602136213108188 2.0953660773227925 4.3410490380406852 78 72 60 0.3341101838565595 10 1236 15 2952 16 2713
23801 -1.1991438348304559 2.0696811150722261 4.3693477644604721 55 52 37 0.35577620916696312 12 604 15 2953 17 3651 18 3236 19 2110 23 2347
23802 -1.4476593419618293 1.9624949703992902 4.4967219125394866 70 66 52 0.4318070958244089 12 2389 15 2955 16 2374 17 3664 18 3270 19 2762 20 3260 23 3017 22 1978
23803 -1.4609599470003012 1.9500150819605926 4.5100838045540357 44 40 26 0.3705495178514539 12 2391 15 2957 16 2426 17 3666 18 3272 19 2764 20 4379 23 3037
23804 0.2650570436067563 2.7178278068500337 3.6070562650752556 77 73 61 0.55808034384869509 68 753 15 2970 17 2607
23805 -0.32519374993604933 2.4239904873970155 3.964733333991227 52 52 40 0.74482494683283818 14 2718 15 2982 16 2405 17 3568 18 2499 19 2690 20 2976 23 650 11 757
23806 -0.3459580007180631 2.4175170907590857 3.9689169103314459 74 71 60 0.75731040063704858 10 507 15 2983 16 2358 18 2500 17 2736 19 1892 20 772 23 2108
23807 -0.49496928894186454 2.3797639815451594 4.0031137377091532 80 77 62 0.37186534272436067 10 1257 15 2984 16 2359 17 3978 23 2138 14 2128 11 753
23808 -0.68712267832853502 2.2907641801306089 4.1153923211882191 50 46 34 0.37709318617043336 14 2132 15 2986 16 1767 17 2763 18 2519 19 757 23 2177 11 406
23809 -0.68870551916230482 2.2474095323081191 4.1855130896993176 71 69 57 0.25359416884496744 14 2134 15 2987 17 3636 18 3224 19 2012 20 3039 23 2185 22 1311
23811 0.39617172003711554 2.654518079746548 3.7097594187452736 47 43 32 0.098264004189019039 12 3951 14 2768 15 3010
23813 0.068159177831544557 2.5711178470224731 3.8082115775105234 73 71 58 0.19431117742520207 12 2786 15 3018 20 2922
23815 -0.3703943575533315 2.3300761818742095 4.1112421903653678 48 44 33 0.43830785732986433 13 1734 15 3029 16 2473 17 3630 19 1942 20 3025 23 734 18 1391
23816 -0.31916373409250448 2.3290498142584619 4.117342768885961 85 81 69 0.14813365070012119 14 2781 15 3030 16 2470 17 3695 18 3223 11 760
23817 -1.0375233215306774 1.9863046222107759 4.5322499072967943 84 81 66 0.4775211555737231 12 2580 14 2230 15 3039 16 2484 17 3765 18 3291 19 2822 23 2392 22 1966
23819 -1.2954598985128882 1.9109730551744049 4.5988813421042529 76 73 58 0.39857645879617659 12 722 14 2151 15 3043 16 2492 17 3202 18 3298 19 2829 20 3408 23 2515 22 1993
23820 0.24107464374828991 2.5261718530296329 3.8773067549015208 47 44 31 0.33418345129169214 12 3890 15 3073 16 2451
23821 0.27808409606879281 2.5136199571457372 3.9140583993477409 51 47 35 0.21814168407384815 12 3957 15 3074 16 2503
23822 -0.023294222877028578 2.3811365484068823 4.0862921281058151 48 44 32 0.27629361380318612 13 1881 15 3080 17 3691 12 2963 18 3219 20 884
23823 -0.023506406038716579 2.3818566466450317 4.0862061787993236 48 44 32 0.2848827153869129 13 1882 15 3081 18 3218 20 885
23824 -0.14836351578360824 2.344897885799277 4.118960314599069 44 42 30 0.41407034455957809 12 3839 15 3087 16 2511 17 3016 19 1997
23825 -0.22242125471206953 2.323039831625664 4.137877034333453 48 44 32 0.37466986330338875 14 2784 15 3089 16 2472 20 3018 19 2002
23827 -0.52484351058429435 2.1645811566678681 4.3409203353262997 53 49 38 0.39932403756120477 14 2785 15 3094 16 2524 17 3152 20 3122 23 2221 22 1337
23828 -0.52551447251105743 2.1643594882035386 4.3408918017164435 53 49 38 0.33428897458884393 14 2786 15 3095 16 2523 18 3283 20 3121 23 2220 22 1336
23829 -0.47467977748183809 2.165865455865851 4.3502510844414033 81 77 66 0.57267291158685574 14 3063 15 3096 17 4015 18 3522 68 534 67 479 23 2948 20 3206 22 1939
23830 -0.90023940341212694 1.9869369326138626 4.5421615627450924 62 59 44 0.42027513010616474 14 2793 15 3109 16 2538 18 3319 23 2995 20 3374 22 1964 19 2817
23831 -0.3804604395905582 2.1878202642406146 4.3327800326532593 57 51 39 0.35446453448482756 9 1202 10 616 15 3138 20 3115
23832 -0.3111794633639785 2.19752756506856 4.3189614967976633 74 72 59 0.49878227390669228 10 1335 15 3140 18 3518
23833 -0.41573884977862735 2.1563177192196923 4.37128731730692 83 79 67 0.45270409458702571 10 619 12 3846 15 3142 20 3200 22 1330
23834 -0.44906206910043567 2.1441988470665811 4.3854379256703675 79 75 63 0.50834301622389255 12 2831 15 3145 18 3282 10 617 19 2807 20 3204 22 1331
23835 -0.56582739902205825 2.0881371037888736 4.4547008285699912 51 48 33 0.47690283028555802 12 2838 15 3147 18 3315 20 3228 23 2261 14 2407
23836 -0.25388842205349188 1.7115721479804265 0.84802600731483979 163 146 57 0.41697229054183299 14 2966 15 3217 16 2603 17 3864 18 3390 19 2530 20 4060 23 2795 22 1770 21 1683
23838 -1.0585740162797872 1.048078897116508 1.5429977098147591 191 228 255 0.99685554095117967 12 3636 15 3237 17 3367 18 3429 19 2571 20 4101 23 1905 21 1183
23839 -1.3802741195742463 1.011801859524627 1.8332455146465398 171 132 85 0.34500446078883412 14 3158 15 3242
23840 -1.3834011908454136 0.97690121441736755 1.8572337857025094 102 84 80 0.72756873379503229 14 2981 15 3243 16 2635 17 3912 19 3009 20 4153 23 2871 22 1852 21 1779 26 371 27 329 25 325 24 237
23841 -1.5338933459156756 0.99682636549900427 1.935950910254532 196 176 64 0.15551041425128537 14 2982 15 3246 16 2836 17 4082 18 3602 19 3173 20 4840 23 3338 21 2138 24 405
23842 -1.7466672963550627 0.94266853721904875 1.9714637795343146 222 186 99 1.3468998636489822 10 1163 14 2983 15 3248
23843 -1.5473303747560809 2.1087074087251763 4.2414610966105064 73 70 58 0.36380196652640079 13 2130 14 2641 15 3259 16 2847 17 4095 18 3485 19 3053 20 4285 22 2314 21 2048
23846 0.47609731807438477 2.6770641810903171 3.7027069876908545 48 44 33 0.94088327601588184 6 2477 14 2264 63 398 15 3328
23847 -0.50981890562415033 2.1719235305461124 4.3252390690528726 75 71 60 0.48137263750206127 12 3787 15 3341 19 3070 20 4294 22 1942
23848 0.45487548036813519 2.5581476114353991 3.8857043226279804 80 78 66 0.19806244243097679 10 1448 67 739 15 3353
23849 0.45550321927377035 2.5593038675667716 3.885310333134028 80 78 66 0.48737385602838224 12 4035 63 395 15 3354
23850 -0.50291274126755348 1.3937001209055229 0.9006575068017556 113 105 103 0.53111370999051133 13 2473 15 3386 16 2804 18 3552
23851 -1.9694252004470132 1.2984431449746177 1.2858395170878207 98 91 50 0.88484292964952116 14 3220 15 3392 16 2821
23852 -1.9694252004470132 1.2984431449746177 1.2858395170878207 98 91 50 0.88484292964952116 14 3221 15 3393 16 2822
23853 -0.59306354392501781 1.4302798639372922 0.92887839616176215 108 70 82 0.42307463366825643 14 3144 15 3398 16 2807 17 4052 18 3560 19 3141 20 4609 21 1965
23854 -0.59306354392501781 1.4302798639372922 0.92887839616176215 108 70 82 0.42307463366825643 14 3143 15 3399 16 2808 17 4053 18 3561 19 3142 20 4610 21 1964
23855 -1.4106311579090296 1.0580428346153863 1.748305782544338 188 148 112 0.011095118986261126 14 3151 15 3416
23856 -0.98591810821114145 2.1442764820540638 4.2940099333198996 58 52 38 0.2641403013373933 12 3709 15 3436 16 2733 17 4108 18 3617 19 3063 20 4706 23 3222
23857 -0.42595278702711648 2.3296319504901559 4.093044071467733 46 42 33 0.41246336500743402 10 1852 12 4314 15 3442 17 4106 23 2924
23858 -0.7081709947569077 2.1859966070121741 4.2736700437860051 85 81 69 0.2661595802235785 9 1673 15 3444 19 3188 16 2868 20 4705 13 2395 22 2199
23860 -0.044485711155687856 2.0144836739034138 0.26368585300341751 101 128 114 0.68081855557309412 13 2557 15 3474 19 2947
23862 -0.14787014999027984 1.3563703811850558 1.6656561893534656 252 217 109 1.0650246717488565 14 3238 15 3495 16 2838
23863 -1.0580722105875877 2.1160493039440387 4.322599465041975 55 53 38 0.4487242668847371 14 3243 15 3505 20 4951 23 3426
23864 -1.9399023495934327 1.4973458092442653 0.78679563097125349 252 212 116 0.67831058741586547 14 3263 15 3523 16 2943 17 4254 18 3747 19 3347 20 5027 21 2257
23866 -2.2490254038926083 0.6920405499741582 2.275230952251619 59 56 105 1.6952763440273115 14 3290 15 3552 16 2973 17 4230 18 3727 19 3264 20 4844 20 5008 23 3470 22 2306 23 3208 21 2017 19 1800 26 1099 26 958 25 886 25 1006
23867 -5.8326374240142203 2.6121841307418481 0.43380729175732352 29 29 29 0.67960672026763047 14 3261 15 3569 16 2947 17 4205 18 3711
23868 -2.0766029533683144 1.4668154475436077 0.85483483955343398 248 208 99 1.5995660304927657 14 3265 15 3573 20 5031 19 3360 21 2274 11 1226
23869 -4.5178254393855131 2.1663152546966837 -1.9151619227837804 83 79 78 0.95809257100134426 3 13417 14 3342 15 3607 11 1352
23871 -1.8077703054610343 1.4247151239694682 0.99400660442403366 67 65 66 0.19616824300387681 14 3370 15 3639
23872 -3.5520698992340156 1.0422318202678664 1.6979780307214434 239 196 94 2.2794104221302831 14 3378 15 3653 17 4333
23873 -2.0115070372284793 0.58315725274735131 2.5680075684205943 48 65 134 1.473046610023675 15 3663 16 3070 17 4346 18 3836
23874 -1.2778580704245013 0.83324763515831191 2.3793807841522661 245 208 94 0.02590884437250832 12 4835 13 2737
23875 -2.6469707905114772 1.952014985467744 -2.1829478705924195 225 214 187 1.1924121774985905 14 3401 13 2739 17 4353
23876 -1.9728213872198421 1.252694099048981 1.260748951689066 58 60 33 2.6438657025865759 39 3772 38 3450 15 1848 14 2546 40 4625 16 182
23877 0.7185249630611128 2.9438500022102327 3.3264481807926507 94 92 76 0.55035789032842186 13 1767 14 1027 15 2282 2 1090 3 8279 6 2533 5 779 7 2939 66 698 68 1015 63 2698 64 397 8 697
23878 0.47999175493325813 2.5927740679136471 3.8345670760227177 66 62 44 0.73903666214211738 6 581 5 685 15 3129 68 3608 8 981 14 2808 12 4032
23879 0.63042133583001303 2.624241398498989 3.8054649336209727 74 68 49 0.44323447179453557 3 942 7 2967 68 4829 12 4435 10 1922 13 2431 14 3090 15 3351 67 3923 64 2074 8 1204
23880 -0.20062266838867021 1.9818615553969299 0.29740713956663378 87 109 96 1.1020120212588302 15 3613 9 2263 10 2506 8 1492 11 1378
23881 -0.31447249441430547 2.2876694004559877 4.1871733739907455 43 40 28 0.87408255209802954 65 433 63 298 15 3451 8 959 14 3180 17 4114
23882 0.85843221968733163 2.7317071692424304 3.6778535782207942 76 69 50 0.73838454136755627 2 1321 3 1137 7 3069 68 3744 6 2623 67 3951 5 2259 15 3348 65 2501 62 382
23883 0.85015533127401965 2.9142540407022648 3.3905515082283677 85 79 67 0.40145541521529921 68 1251 12 1803 15 2392 13 1845 14 2239
23884 -0.071000711835723915 2.4645881748198319 3.949098721558002 51 48 34 0.67583427204846391 9 552 12 2796 15 2435 7 637 68 586 67 561 14 2745 17 3618 18 3196 20 747
23886 0.018844988762347321 2.7868057080966415 3.4548675687802395 78 74 63 0.30022440007345186 12 795 10 490 15 737 13 718 14 732 17 778 18 740 16 633
23887 0.032852957481191228 2.5606809776827304 3.8243799233965801 71 72 56 0.26084221874155378 14 1106 15 1132 17 1239
23889 -1.5428090173420668 0.69349315237298292 2.718839936283254 241 205 91 1.0822198476044267 14 3395 15 3664
23891 -2.2175671101940564 2.7762521493375973 -3.7424606435759005 203 196 170 0.51942659782182354 14 2 16 6 17 31 21 24 26 30 25 6
23892 -1.8317751419435517 3.1350893589230324 -3.7368826012215748 200 190 165 0.86800531892403898 15 1757 16 11 18 1962
23893 -2.990269357364256 2.5324205841811729 -2.9903096772263646 209 202 174 1.0606744324301136 15 19 16 12 19 12
23894 -4.4071821605286905 2.0027966006543125 -1.9188100118565978 178 175 170 0.53954516017002252 15 38 16 27 18 23 19 25 20 10 21 73
23895 -5.4739548757866379 6.3737991654091957 -3.4554181118740712 36 35 33 1.6348507830755785 12 78 16 45 11 513
23896 -5.7187425686015096 2.1814110932113788 -0.0286035293755698 63 63 58 0.41030835941420107 15 49 16 50 17 96 18 123
23897 -5.75587428924897 2.1332219857636372 0.10763203368932588 82 82 75 0.63051887940476969 15 68 16 52 18 2032
23898 -0.27735876769658496 1.8628147023456285 0.20352006503414258 175 202 171 0.59380671035796262 12 175 16 60 17 107 18 76
23899 -0.18787200267826393 1.8640988464956691 0.22290732628918725 175 201 168 0.3100587418744094 15 94 16 93 17 101
23900 -0.22710676222213516 1.999808816186607 0.25758750376844175 141 171 140 0.82040975006372618 12 189 16 99
23901 -0.46374030943370664 1.938938280811443 0.2394114460963889 140 175 145 0.47372221426250971 15 131 16 106 25 63
23902 -0.48343103120240782 1.9424547884851924 0.22529246432079619 166 197 173 0.45136690475684416 15 130 16 111 30 693 28 539
23904 -2.4630205942880306 2.2245370197744254 0.44790029892582134 76 62 32 3.0039023973084271 13 97 16 121
23905 -2.0053353837136818 1.449112993706333 0.83076069614104209 111 79 24 0.31225022677841591 15 155 16 123 17 2156 19 150
23906 -1.9654949377564059 1.0737578622291528 1.1626412786560061 235 215 110 0.23548849305568251 12 112 15 160 16 127
23907 -0.17387784287277031 1.5637524384644026 0.66794098296897386 72 92 163 0.40165889669105742 15 177 16 133 18 128
23908 -0.24523846079579839 1.5089675804493727 0.68401328391676353 76 91 98 0.4567192620905508 15 176 16 135 19 82 22 88 21 147
23909 -0.45812714724631726 1.4068918488917797 0.86580464533839718 194 185 164 0.30860220957458201 14 140 16 145 17 205
23910 -0.61418390474641094 1.3306196061010833 0.86162230104083071 187 173 196 0.33585780383334601 15 184 16 150 17 214 18 143 19 127 20 76 23 102 22 118 21 158 30 255 28 80
23911 -0.59522395532007566 1.3688355366894862 0.89103035756084958 188 178 185 0.37780811963449268 15 190 16 151 17 215 19 124 22 119 21 159
23912 -0.58671060447243717 1.3818431278837588 0.89719819193648742 93 84 86 0.10861284620449081 15 191 16 152 17 216
23913 -2.0348032484716785 1.4688911973205796 1.0680461285840503 230 202 146 0.22860316588363627 15 1844 16 176 17 235
23915 -0.2620497431963611 1.6294662654191345 0.79753155214526772 109 102 77 0.40056392073065311 14 172 16 190 17 203 18 136 19 112 20 87 21 175 27 122 26 96
23916 -0.44214969719997022 1.5268317619246567 0.90724371891376698 210 146 132 0.20580837570998453 14 180 16 192 17 209
23917 -0.59091899005627591 1.5817118253487397 1.0271323094810849 133 101 125 0.46582509008732065 15 344 16 199 17 260
23918 -1.0684732141884639 0.9523478765791179 1.3511566395641486 120 146 183 0.12707884469034275 15 257 16 232 17 291 18 219 20 144 19 180 11 112
23919 -1.5509878801537056 0.85411069047224342 1.57083029969679 253 247 243 0.29386045100290747 15 273 16 258 17 307 43 180
23921 -2.5780102694535465 2.0536825086825603 1.1497280170431732 109 101 122 0.80619309942917605 15 280 16 281
23924 -0.58779461103407493 1.6470031150541276 1.1049656798006917 143 121 62 0.64515003106041469 13 330 14 295 16 318
23925 -0.93621709214995719 1.1302793221424876 1.4118071079714392 132 157 228 0.5814028424347738 14 307 16 327 11 252
23926 -0.96632105313702987 1.1115549667561804 1.4381267238946651 130 159 227 0.36002090058682246 13 244 16 329 21 277
23927 -1.0637317367970849 1.0623924790228667 1.5135244041055669 129 160 219 0.2041822180183461 15 362 16 336 21 282
23929 -0.6359992135715512 1.4097967003421881 1.3610678633712134 150 168 235 0.55563563691469853 15 1939 16 372 18 310
23930 -1.0880851277391279 1.1222608721673537 1.6972535575059071 126 158 221 0.22797782366323108 15 418 16 381 17 413 18 437
23931 -1.0880851277391279 1.1222608721673537 1.6972535575059071 126 158 221 0.22797782366323108 15 419 16 382 17 412 18 438
23932 -1.3592217679726157 0.86263839859319413 1.7680631130679965 193 160 106 0.43120935052885523 15 380 16 384
23933 -1.4074696523177348 0.9193816835828641 1.8259959685180183 88 89 106 0.30101663055037364 15 425 16 388 18 450 19 392 22 367
23934 -1.4385909960552794 0.82564862508693548 1.798042904713038 93 73 51 0.54007649425329318 14 344 16 390 17 2275 15 1921 18 3028 19 1678 20 2728 23 1985 22 1137 21 1228
23936 -1.5666615483331607 0.94239939072744505 1.9199463351636514 111 100 67 0.26068520495112119 15 436 16 403 18 463 19 408 23 430 25 339 26 431
23938 -1.5971785770362159 0.90886653386576188 1.912162383649382 105 85 63 0.34748859222419731 17 547 18 461 19 407 23 432 16 410 15 434 21 464
23939 -3.2229731853144519 2.0176073483724157 4.0384380881372275 80 75 63 0.51103559763552497 15 525 16 517 22 1402 23 3024 21 1431
23940 0.24666932923979834 2.9899535078190169 3.1771275855647287 71 69 58 0.06457172602697224 14 609 16 559 18 640
23941 0.19511285413028431 2.9328268061073368 3.2642105191878907 73 69 58 0.24621887863325229 14 619 16 560 18 670
23943 -0.79772541032860866 2.5224165580273246 3.7072693004927011 70 68 55 0.22880273533041398 15 660 16 588 17 809 18 794
23944 -0.79772541032860866 2.5224165580273246 3.7072693004927011 70 68 55 0.22880273533041398 15 661 16 589 17 810 18 793
23945 -1.0975986314431194 2.3811215537586685 3.8833274070530357 73 66 55 0.17819665683695388 15 673 16 593 17 820
23946 -1.1154186855700523 2.3728959553172202 3.9046380293286296 65 59 46 0.32649436886447614 14 577 16 594 17 962 23 784
23947 -1.1154186855700523 2.3728959553172202 3.9046380293286296 65 59 46 0.32649436886447614 14 576 16 595 17 961 23 783
23948 -2.4084602265362984 1.8450479404618443 4.4945758599323495 41 39 26 0.26788537486366865 15 618 16 613 19 2051 20 3290
23949 0.03056974718628102 2.815144669276318 3.4081680717806075 75 71 59 0.31076691597586181 14 1959 15 736 16 631 17 772 20 484
23950 -0.22846431016632951 2.6680360897430297 3.6009893674057452 69 65 53 0.34688142211736339 13 605 15 753 16 647 18 761
23951 -0.57893334776826366 2.5485248297755749 3.7035086341195629 70 68 56 0.22693331344566772 15 2065 16 662 17 2549
23952 -1.1305395124375455 2.3181576535434645 3.9941872676984884 49 45 33 0.27824205014337822 15 680 16 681 23 886 20 823
23953 0.22876106137750213 2.7770272497178885 3.5295379994611622 75 71 59 0.27984381855700252 15 904 16 729 17 862
23955 -0.031045330741802841 2.652311570410951 3.6594794306451739 78 75 61 0.3985215596044257 13 745 16 750 17 1064 12 995 18 855 19 548 20 540
23956 -0.16484618089756151 2.6232059478729295 3.6803554417135054 74 70 59 0.19106599709887306 15 2208 16 758 17 2537
23957 -0.20658969573864233 2.6021985880531013 3.7050412955735723 54 48 34 0.35692521414542311 15 2210 16 761 17 907 12 813 18 2390 14 2031
23958 -0.31680391227621701 2.5606552850468045 3.7590069024533195 77 73 61 0.30878001641869696 13 747 16 771 17 1089 18 2399
23959 -0.21521710560330401 2.5575460795242067 3.7735629195091813 84 79 67 0.33123005364158881 13 752 16 773 20 636 21 624 11 412
23960 -0.41400924438070474 2.5002065356641405 3.8043725383116413 52 46 34 0.25700662738673963 15 945 16 777 18 897
23961 -0.39027911509827445 2.4835627013266652 3.8531583839477257 69 65 53 0.33115013817936223 15 949 16 780 17 1099 14 785
23962 -0.59477726942940168 2.4252291195104831 3.8982636084636573 70 66 54 0.18799979443536763 15 961 16 791 18 1066
23963 -0.71859559359620051 2.4171650856742262 3.9175650079600035 53 50 35 0.33274688160856553 12 698 16 792 17 1124
23964 -0.70263594160367937 2.3810589064438528 3.9608650894416768 51 45 31 0.27376276366426827 15 971 16 794 18 2463 19 653
23965 -0.71843536957571896 2.3823641644613036 3.9716157686851172 77 71 58 0.13400657144880984 15 977 16 796 22 578
23966 -0.90087668109228591 2.3629468788692467 3.9724116581969526 78 72 58 0.36173544252540391 15 798 16 803 19 664 20 807 22 581
23967 -0.90599667808075368 2.3287828116214357 4.0042495436583012 56 50 38 0.39408112496019748 15 809 16 804 17 1149 19 667 20 810 23 873
23968 -1.0193397214967388 2.3066788171537187 4.0317586562905063 76 72 58 0.36059542013368712 15 808 16 809 17 1153 19 669 18 1096 23 885
23971 -0.071191089083056838 2.585358491174039 3.7548459645703507 55 52 37 0.26424816224110709 13 875 14 943 15 1124 16 891 17 1076 18 1013
23972 -0.036011292286740201 2.5758091657069104 3.7821992855134936 80 77 62 0.24007350649553361 15 1128 16 894 17 1245
23973 -0.19734868593132276 2.4916505832106455 3.8749964190966444 73 69 57 0.2573570391506354 13 1731 15 1135 16 896 17 1261 18 1029
23974 -0.34127219365573497 2.4903215475661651 3.8660724840497167 74 72 59 0.28198641024426369 12 824 16 899 22 543
23975 -0.404543866946102 2.4483354444192806 3.9080940646263511 72 68 56 0.26076603664028231 12 832 16 904 18 1049 19 640
23976 -0.57569289778546184 2.3762543428729908 3.9969282684563048 80 77 62 0.08972174114953177 14 972 16 905 18 1227 17 1295
23977 -0.6627283295377957 2.3259181848031014 4.0548079582319954 74 70 58 0.30426977047037007 15 982 16 917 18 1231 17 1300
23978 -0.60823898889066152 2.3251786985195264 4.0700184130391799 82 78 66 0.29863130303708285 15 1171 16 918 17 2745 14 977 18 2518 19 1948 20 792 23 840
23979 -0.91777198482419775 2.2547798204528524 4.1335744539619279 57 53 41 0.12148234803286057 15 989 16 932 17 1319 18 1260
23980 -0.92133076455527496 2.1940685016605643 4.2265080419469534 56 50 37 0.237511093139572 15 1003 16 942 17 2918 18 2641 23 986 22 639
23981 -1.0420272003330495 2.1407527022080495 4.2860278263224956 81 75 61 0.28591039213869762 15 2255 16 953 17 1568 18 1461 14 824 19 915 20 1145 23 1088 22 647
23982 -1.244253077741446 2.0978475557262564 4.3217449729728772 79 75 60 0.32423519416643204 15 1020 16 955 17 2791 18 2654 19 925 23 2348
23983 -1.209146737265099 2.0744878000107558 4.3569490872871954 88 85 70 0.18296207666163791 14 835 15 1021 16 959 17 1584 18 1490
23984 -1.4026261868393952 1.9763190710163125 4.4707367666495053 70 66 54 0.32722641490267657 15 1029 16 965 17 1617 18 1689 23 1329
23986 -0.16008138931897276 2.4459066400917799 3.9519230975686863 48 46 33 0.32118156313894997 15 1340 16 1024 17 1478
23987 -0.20819805873691688 2.4120419418072525 4.0117795345895342 49 45 33 0.59461204995752037 14 1123 15 1347 16 1031
23988 -0.28612483146295037 2.41040655695519 3.9944247070186099 51 47 35 0.20411545078923637 12 1025 14 1129 16 1034 17 1497
23989 -0.45086100708134397 2.3470622468278162 4.0699080432293426 67 63 52 0.17936785339434899 15 1175 16 1040 17 1519 18 1221
23990 -0.45371478080918748 2.3319177469400501 4.0892667003072569 73 66 56 0.1659540168846998 15 1177 16 1044 23 746
23991 -0.46496343619886593 2.313521713318166 4.1169476031653796 73 67 55 0.12129570887698396 15 1368 16 1046 17 1530 14 1143
23993 -0.50609925798729483 2.2843670057258287 4.1447587175914942 52 48 36 0.15171676215875374 15 1372 16 1057 17 1537 18 1409
23994 -0.67856538010491252 2.2514595375821034 4.1520601994538033 69 69 57 0.32048463100883834 15 1182 16 1058 18 1420
23995 -0.80962573097835733 2.1856082864718407 4.2156739024385228 74 70 58 0.30309985027056491 15 1204 16 1069 17 2913
23996 -0.8567819900188165 2.1939874557614836 4.2225964771112272 59 55 43 0.18186173764554667 15 1201 16 1071 17 2917 19 890
23997 -0.86046876827044083 2.2066539741114211 4.2280058240519534 59 55 43 0.1072351618502118 14 986 16 1072 17 2916
23998 -0.91104956534357906 2.1738531234993639 4.2610348826830906 82 76 60 0.23677646498167962 14 993 16 1073 17 1562 18 1455 19 900
23999 -0.96437648728997183 2.122191273616203 4.3373245817239656 81 75 61 0.26106235599500649 15 1216 16 1078 17 1575 18 1655 19 908
24001 -1.3201009506098631 1.9393785511227024 4.5475073144557605 81 77 65 0.20885141592769399 15 1246 16 1096 17 1865 18 1838 19 1232 23 2520
24002 -1.3868532099716879 1.922337320713646 4.5651790913783072 81 78 63 0.35854912324338067 15 1250 16 1098 17 3088 18 2820 19 1233 20 1618 23 1439
24003 0.30001243616158141 2.5677914290119261 3.8548979169775119 69 65 53 0.43863045836652809 14 1435 16 1125 18 1154
24004 0.027596122592856313 2.4372934477733241 4.0143509488040614 76 73 58 0.34557633624412287 14 1296 16 1139 17 1702
24005 -0.70187820938099521 2.1899271823977111 4.2737994674536655 89 85 73 0.26805852812277392 15 1396 16 1164 17 1793 18 2710 20 1116 23 953
24006 -0.73159649552524297 2.1754695666368549 4.2834488938392274 57 54 39 0.25462848547135342 15 1401 16 1165 17 1796 12 856 18 1626 20 1117 22 632
24007 -0.67406662451584254 2.1994370897645652 4.2839951050092449 51 47 36 0.31334768726459039 15 1398 16 1169 17 1798 18 1624
24008 -0.72212182860411889 2.1570143334628251 4.3193879757233953 53 50 35 0.32430363300833365 13 903 14 1157 16 1170 23 959 20 1122
24009 -0.59804214010363421 2.1868121998417913 4.2914681960352885 81 79 66 0.28383487875575697 14 1156 16 1171 17 1802 20 1104
24010 -0.82979308453335243 2.1310263333554897 4.3371953560134093 90 87 72 0.45325137548242161 15 1408 16 1180 17 3707 12 2576 18 3254 19 2755
24011 -1.0931686351167971 1.9709149735088245 4.5490081749980504 83 77 63 0.74490839576589019 13 782 15 3040 16 1191 22 1433 23 1290
24012 -0.0068947851743894461 2.4025591528004187 4.0900422167428374 55 52 37 0.53681227059955705 15 1537 16 1224 17 1725 18 1357
24013 -0.0052047353743144079 2.3852319407803879 4.0838011171688242 55 52 37 0.49631936424067175 15 1538 16 1225 17 1724 14 1476
24015 -0.50867442467189361 2.1443021563371585 4.3716017262347124 81 75 63 0.25871744407888597 15 1578 16 1240 17 1985 14 1345 18 1781 19 1026 20 1301 23 933
24016 -0.5395192388612996 2.1529859086972145 4.3518490178935592 76 73 58 0.35860290147992413 15 1577 16 1242 17 1979 18 1780 20 1312
24018 -0.63692182063526703 2.1150960176337592 4.4037390662655653 56 52 40 0.17374198974135557 15 1587 16 1245 18 1793
24019 -0.20826954950049703 1.9195816579577412 0.25718084125496038 165 195 169 0.35206943306580646 13 1386 14 112 16 1311
24020 -0.17506668094198813 1.9458315864389486 0.28400727148092203 164 197 165 0.27341348727284809 14 115 15 1805 16 1314
24021 -0.23909522743027703 1.475166293644353 0.62008376950722333 197 193 150 0.58221760339175677 15 1811 16 1319 17 2132 18 2019
24022 -0.21697675506534453 1.5099870897964882 0.62270538662318009 223 218 176 0.36884527848513821 14 130 16 1320 17 2135
24023 -0.23410338729532115 1.4906175850848011 0.63306468642873637 229 224 186 0.3401843111152289 15 174 16 1321 17 2136
24024 -6.3787836493087031 3.6672338572615382 0.057048542691328349 102 94 87 1.0079516092902454 15 162 16 1336
24025 -0.26470887882324862 1.5185674066051047 0.65206306371995904 187 198 187 0.76232760490131479 15 175 16 1342 14 134 17 163 20 2571 21 1092 22 1013 24 190
24026 -0.16919218826915852 1.6945368513349521 0.73677089650678018 215 183 107 0.65889462914642605 15 2765 16 1359 17 2166 18 2037
24027 -0.63242196710740239 1.603354296063914 1.0214635491253357 168 136 157 0.52751728018123956 14 290 16 1364 17 2206
24028 -1.6979290820735051 0.83781259753940096 1.5767811054638643 247 247 254 0.31050566826246934 15 1883 16 1382 17 2227
24030 -0.18075120861550775 1.8723253274456968 0.85433816121788597 227 192 85 1.3100881689461521 15 3402 16 1387 17 2196 23 120
24032 -1.5594429190225281 0.76400609057400248 1.8148234346896188 200 199 191 0.48101745774723453 14 349 16 1433 18 2176 19 1689 20 2735
24033 -1.6881016015737993 0.74275782596633966 1.8359927592041956 186 171 140 0.36131254446392141 14 272 16 1434 17 2286 18 2188 19 1762 20 2742
24036 -1.4679418618806173 0.8543826059418671 1.8327437101357491 130 113 111 0.29109154487352629 14 355 16 1451 20 295 22 369
24037 -1.5804937034714259 0.84512084290843714 1.8708689498778277 87 77 75 0.50032625075047066 15 1933 16 1456 17 2287 18 2222 19 1754 20 365 22 379 21 453
24038 -1.6456941595917403 0.88473377468797409 1.9242298809252407 234 176 141 0.24895856889492818 14 372 16 1461 17 2293 18 2235 19 1761 20 2784 23 2013 22 1178 21 1301 26 696 25 598 24 262
24039 0.044517738801211924 2.9505388752757673 3.2100949114879564 71 67 56 0.12059320805459403 14 543 16 1528 17 703 18 648
24040 -0.17786834603906529 2.8204608676101213 3.3540596217279659 45 42 35 0.37245360333468402 15 2058 16 1555 18 687 17 713 19 521
24042 -0.49548573324295014 2.6114984679648714 3.6379831020079196 51 49 36 0.34935728717718362 14 646 16 1588 17 798 18 781
24043 -0.50641166980502306 2.5595930362252552 3.7051829356361634 70 63 53 0.18158249093130477 15 768 16 1589 17 928
24044 -0.44938686615968687 2.5764732694353296 3.7032010268357829 66 60 50 0.066938481748683262 12 678 16 1590 20 579
24045 -0.5764900324393103 2.4983192174359501 3.8100315857847691 51 47 36 0.33093435257578513 15 2110 16 1592 17 2553 18 2410 19 605 23 664
24046 -0.98682600224091421 2.3326182977139531 4.001982928164014 76 72 60 0.29784984818753907 15 2121 16 1601 17 2663 20 2990 23 884
24047 -0.98605346316004783 2.3288527577109481 4.0001614868844486 76 72 60 0.29559159803997759 15 2122 16 1602 19 666 20 2991
24048 -1.108910066186263 2.3043330864105904 4.005925995237317 51 48 33 0.28299362236940101 15 2069 16 1603 17 966 18 1108 19 670 20 821 23 2199
24049 -1.3569605957474749 2.2419258465395511 4.0715168826133166 44 40 28 0.36139002658291469 15 682 16 1604 17 2567 18 1117 19 676 21 706 22 609
24050 -2.2221562909032326 1.8101756354807961 4.5732485225239063 45 39 25 0.66908080724016439 15 2079 16 1616 17 2823 19 2772 23 3118 20 3449 21 1910
24051 0.34956697232570427 2.8008956754804082 3.5030142512220759 52 50 37 0.21021741460948304 15 2183 16 1629 17 2505
24052 0.071804990870232274 2.6982314525760436 3.5853517923608296 75 75 62 0.49298669295576963 15 2194 16 1640 17 2515 13 1712 18 2375
24053 -0.020446191712442236 2.7216822349024659 3.5593237674531508 75 71 59 0.38561407030306755 10 1274 16 1643 20 498 17 2512 23 542 18 2340
24054 -0.17514754724341025 2.6378357802003896 3.6568487982868589 52 48 37 0.13685976560203408 14 767 16 1654 17 2532
24055 -0.13283429875749508 2.6024862310834651 3.722567495302318 81 75 61 0.31586285711016859 12 1009 14 2115 16 1655 17 2624 18 879 19 584 20 555
24056 -0.33030510208912583 2.5871409731206669 3.7171060202235542 56 53 38 0.42652076748088852 15 2107 16 1658 17 2546 18 2398
24057 -0.28324497920946595 2.5294607788971319 3.8032353983490719 56 54 41 0.29015028315313729 12 819 16 1661 18 2449 20 648
24058 -0.47682369134379132 2.50397535055047 3.8287657208047916 50 46 34 0.48511111941169216 13 629 16 1663 23 660
24059 -0.72635768951172686 2.4075814850422801 3.930751258466048 75 72 57 0.14985870925609712 12 2447 16 1666 17 2655 19 1897
24060 -0.82314356315010706 2.3093543302060344 4.0531254781614399 77 74 59 0.22501438170032947 15 981 16 1668 18 2470 20 803 17 2659 23 2189
24061 -0.82378630083334303 2.3134988656410442 4.0544840071984609 77 74 59 0.23059638800901158 13 645 16 1669 18 2471
24062 -0.99307440313472894 2.2378617003415586 4.146502248757149 84 80 68 0.22738952342133967 15 997 16 1675 17 2773 18 1267 20 972 23 980 22 600
24063 -1.1720792695934994 2.1849615015675186 4.1956471823457564 86 80 66 0.2346682318689863 15 829 16 1681 17 2776 18 1290 19 790 23 1012 22 650
24064 -1.1529503318532217 2.1627063559996378 4.2243994213513885 77 73 60 0.23452651487946249 15 2250 16 1684 17 2780 23 2295 22 1357
24065 -1.3214180498717774 2.1637701979894701 4.1902729712512379 69 66 52 0.2423529323830477 15 827 16 1686 18 2555 20 996 23 2304 22 654
24066 -1.2153166660680566 2.1848369077733558 4.1884089353058602 76 68 55 0.23749284746052823 14 682 15 828 16 1688 17 2671 18 2552 23 2245 21 722
24068 -1.5931392458343856 2.0408034545688896 4.349570423796334 75 71 59 0.20489053040129615 15 2143 16 1690 17 1387 19 2037 20 3158 23 1209
24069 -1.581921656693827 2.0217532046042659 4.3676456122599525 79 75 63 0.23221734497446217 15 2144 16 1691 23 2434 20 1191 21 782
24071 -1.7305541113202136 1.9580617410504193 4.4358551561280768 41 39 26 0.25033319249063146 15 843 16 1696 23 2547 22 1457 12 2354
24073 0.32795658949647866 2.7391247192867199 3.585877692692883 77 75 62 0.1744814293322284 10 652 12 1191 16 1715
24074 -0.076323741287627839 2.541432326703589 3.8310968852896914 76 74 61 0.4238566049092149 15 1137 16 1731 20 633 21 619
24075 -0.25890936820575239 2.5345079009869269 3.8041798643177631 54 50 38 0.3324354361124609 12 823 16 1735 17 2633 14 952 18 1024
24077 -0.28105600761309124 2.4658226522076738 3.9038839204810736 74 74 62 0.18555765548303949 14 962 16 1741 20 657
24078 -0.28170251622331899 2.4684233839894119 3.9058782370723679 74 74 62 0.4025732974529766 10 506 14 961 15 1143 16 1742 17 2733 18 1047 19 637
24079 -0.50776091980070781 2.3946416355517144 3.9751290602855995 74 71 56 0.34547499616614202 15 973 16 1748 17 2737 18 1065 19 647 20 784 23 739
24081 -0.4856741225693455 2.3819201093555273 4.0175932692685112 54 50 38 0.45422762298169506 15 1163 16 1750 17 1288 18 1215 19 743 23 741 11 417
24082 -0.51954821121159567 2.3458428107015683 4.0509326389888729 77 73 60 0.078373206815033916 15 1169 16 1752 17 1293
24083 -0.69540170022858683 2.3202193360091368 4.0668582776538491 54 50 38 0.17897194447319503 15 2237 16 1755 17 1306 18 1232
24084 -0.57754562239051033 2.3529324848630342 4.0295653262240263 75 71 60 0.32500345598837688 15 975 16 1756 20 790 23 762
24086 -0.71972951549288333 2.3018174905700413 4.1137706917029808 52 48 36 0.33536743966974353 15 2239 16 1764 18 2529
24087 -0.76379541428900533 2.271139765969246 4.1163496964882231 82 78 66 0.27792143266789104 13 1675 16 1766 20 958 22 594
24088 -0.93683991892169216 2.2482016410287216 4.1268993799436862 54 50 38 0.17897869131008018 15 2242 16 1769 17 1315
24089 -0.93549272455038168 2.2479618255942824 4.1419390545957393 72 68 56 0.14907764318696734 14 820 16 1770 17 1321 18 1261 23 976
24090 -0.86748006462869398 2.2381825930620973 4.1680606446180395 78 75 60 0.23674493641533406 15 992 16 1772 17 2770 23 971
24092 -1.0839652354506804 2.1213202750887525 4.3085299326271205 60 57 42 0.26480748199088083 15 1015 16 1781 17 1576 18 1471 19 918 23 1091 22 649
24093 -1.2933897005104096 2.0897755539206084 4.3186276120916967 83 80 65 0.28045933708099802 13 549 15 1018 16 1784 17 2790 18 1496 19 926 20 3154 23 1193 22 1395
24094 -1.3199098139356888 2.0278453715958711 4.4140444164991024 83 80 65 0.35467123003274692 15 2262 16 1788 17 2939 19 2111
24095 -1.4206033929306512 1.9882723101186519 4.4559253535264016 47 44 29 0.92518745011988335 12 608 16 1793 17 2947 18 3269 19 2761 20 4337 23 2425 22 1444
24097 -1.5681858127147799 1.9240715145306209 4.523474625817645 50 47 32 0.50254198945526829 15 1044 16 1799 17 2958 18 2754 19 1084 20 1624 23 2539 22 1504 21 1494
24098 -1.6107396307437596 1.9006009776708828 4.5589847089459647 78 75 60 0.35913874978585592 14 845 15 1047 16 1800 17 2964 18 2756 19 2231 20 3421 23 3039 22 1508
24099 -1.8463965347535594 1.8077449421535141 4.6510950110628411 71 69 56 0.39001888807623614 15 2274 16 1802 19 2241 20 3609 23 3107 22 2017
24101 0.35666213016903453 2.6719619576912583 3.7176374486341039 50 46 35 0.56458830953086969 14 1253 15 2416 16 1827 17 1223
24102 0.13177174886974061 2.6016404289831794 3.7915715164205817 49 45 33 0.30697037291419027 15 2420 16 1836 17 2717 18 1008
24103 -0.039203851866778515 2.4827377641796131 3.9279357096053165 52 45 35 0.6418203203140429 15 2428 16 1844 20 744
24104 -0.39565765664709573 2.3934530417627742 4.0120536300099907 71 68 59 0.31756584014811201 14 2126 15 2326 16 1851 17 2740 18 2501
24105 -0.27782486734825979 2.3970588291630124 4.0053462074347621 73 71 58 0.29638552079860769 15 2439 16 1853 17 1498 18 1205
24107 -0.41935097719390901 2.3448889675255402 4.0746175329621392 78 73 67 0.17361104407710951 15 1162 16 1859 18 1219 11 418
24108 -0.49495859393221048 2.2967212951302565 4.133599288196482 74 69 57 0.23134524707598034 14 2216 16 1862 19 750 20 921 23 826
24109 -0.63532030757878921 2.2493630425357605 4.1860540919005516 51 49 36 0.37168741461762689 12 851 15 1194 16 1865 17 2909 18 2619 10 451 19 882 20 951 23 2176
24110 -0.61862881235964828 2.2446446088176173 4.2004839240190037 79 77 64 0.39285876003179204 15 1385 16 1866 17 1539 13 898 18 1424 20 950 23 2175
24111 -0.69155858072713916 2.2544432912760359 4.1482260390517114 49 48 36 0.19654178441434525 15 2343 16 1867 20 952
24112 -0.71524761122631342 2.2489413200187074 4.1667904524832435 76 76 64 0.26552921567741222 12 846 16 1869 17 2904 15 1183 18 1429 20 959
24113 -0.82724955463091543 2.1759250362389748 4.2680624818183466 79 76 61 0.20933455858272831 10 454 14 2143 16 1885 17 2919 18 2644 20 1121 23 970 22 638 21 744
24114 -0.99391677134168821 2.0773868332260355 4.3947045029746654 55 52 37 0.43259838494924568 15 1226 16 1893 17 3059 19 2106
24115 -1.2601491094713242 1.997684652701712 4.4537614024404863 52 49 35 0.43051780276008117 15 2367 16 1900 17 2943 19 2115
24116 -1.2602898230647981 1.9972124099537292 4.4546343609836292 52 49 35 0.37269645906582266 15 2366 16 1901 18 2735 19 2114 20 1374 23 2409
24117 -1.3768064333790992 1.9727073230186714 4.4874717135891311 75 71 59 0.36495448495923516 15 2370 16 1906 17 2950 12 615 19 2125 20 1388 23 2418 22 1442
24118 -1.3930342857369289 1.9673165943084938 4.4879708904977491 48 44 32 0.39578297720259781 15 1031 16 1907 18 2743 19 1076
24119 -1.3945679461706593 1.9697568393674854 4.4886702928163542 48 44 32 0.37655194448667956 15 1030 16 1908 20 3257
24120 -1.646375007349727 1.8097625149213235 4.6806233827880837 72 70 57 0.45677708378211695 15 2377 16 1913 17 3728 18 3302 19 2338 20 3599 22 1572
24121 -1.7639429547770649 1.8101976355313787 4.6649897288390205 71 67 53 0.41442889658756854 15 2276 16 1916 17 3106 18 2837 19 2237 20 3604 23 3106 22 1574
24123 0.22658434076080125 2.5717076429689247 3.8310126791989179 49 47 34 0.45085889728096512 12 2954 16 1934 18 2489 20 621
24124 0.21214152325718427 2.5518411941918027 3.8568903984902554 47 46 34 0.40460482493650129 12 2958 16 1939 20 622
24125 0.13986352069568023 2.5019046449667464 3.9195819114507913 78 73 61 0.25355708017418088 12 1402 16 1941 17 1449 18 1160
24126 -0.16642729487341057 2.4126653043411563 4.0159712918714225 40 36 25 0.4802176556738687 14 2296 15 3025 16 1958 17 3623 19 2705 20 2972
24127 -0.29406444290261913 2.2814811228631933 4.1682202254426723 70 66 54 0.15638896693873791 15 1556 16 1973 17 1766
24129 -0.76976689890588634 2.1042221418882239 4.3923886298653558 85 81 69 0.27371905583544653 15 2473 16 1992 17 3163 20 1327 23 1063 18 1639
24130 -1.0488685838513865 1.9908970816020526 4.5214207031243872 54 51 36 0.32799646486864253 15 2478 16 2004 17 3185 18 2805 12 871 19 2209 20 3383 23 2393 22 1431
24131 -1.3786879187506498 1.8978110286265926 4.6141602001219635 47 44 29 0.34502687927439391 15 2375 16 2014 17 3721 18 2822 19 2225
24132 -1.4479252313015303 1.8580131033982248 4.6339775477396605 74 72 57 0.20562156914408156 15 1251 16 2015 23 1580
24133 -1.4485728199011525 1.8590266018329402 4.6353427366469537 74 72 57 0.32053809952775314 15 1252 16 2016 18 1849 19 1375 23 1581
